ply
format ascii 1.0
comment Created by Open3D
element vertex 3281
property double x
property double y
property double z
end_header
106 87 54.2621
107 87 54.2621
108 87 54.2621
109 87 54.2621
110 87 54.2621
111 87 54.2621
112 87 54.2621
113 87 54.2621
114 87 54.2621
115 87 54.2621
116 87 54.2621
117 87 54.2621
118 87 54.2621
119 87 54.2621
0 88 54.2621
1 88 54.2621
2 88 54.2621
3 88 54.2621
4 88 54.2621
5 88 54.2621
6 88 54.2621
7 88 54.2621
8 88 54.2621
9 88 54.2621
10 88 54.2621
11 88 54.2621
12 88 54.2621
13 88 54.2621
14 88 54.2621
15 88 54.2621
16 88 54.2621
17 88 54.2621
18 88 54.2621
19 88 54.2621
20 88 54.2621
21 88 54.2621
22 88 54.2621
23 88 54.2621
24 88 54.2621
25 88 54.2621
26 88 54.2621
27 88 54.2621
28 88 54.2621
29 88 61.6436
30 88 79.0799
31 88 88.4948
32 88 95.281
33 88 100.474
34 88 104.822
35 88 108.422
36 88 111.308
37 88 113.882
38 88 116.267
39 88 118.478
40 88 120.497
41 88 122.255
42 88 123.881
43 88 125.304
44 88 126.571
45 88 127.643
46 88 128.696
47 88 129.745
48 88 130.837
49 88 131.996
50 88 133.227
51 88 134.439
52 88 135.698
53 88 136.836
54 88 137.812
55 88 138.651
56 88 139.353
57 88 139.94
58 88 140.391
59 88 140.628
60 88 140.54
61 88 140.146
62 88 139.361
63 88 138.149
64 88 137.144
65 88 136.553
66 88 136.374
67 88 136.216
68 88 136.193
69 88 136.394
70 88 136.818
71 88 137.274
72 88 137.608
73 88 137.806
74 88 137.823
75 88 137.625
76 88 137.172
77 88 136.555
78 88 135.614
79 88 134.296
80 88 132.671
81 88 130.928
82 88 129.11
83 88 127.222
84 88 125.182
85 88 122.994
86 88 120.779
87 88 118.359
88 88 115.934
89 88 113.157
90 88 110.159
91 88 106.691
92 88 101.726
93 88 93.8381
94 88 74.6499
95 88 54.2621
96 88 54.2621
97 88 54.2621
98 88 54.2621
99 88 54.2621
100 88 54.2621
101 88 54.2621
102 88 54.2621
103 88 54.2621
104 88 54.2621
105 88 54.2621
106 88 54.2621
107 88 54.2621
108 88 54.2621
109 88 54.2621
110 88 54.2621
111 88 54.2621
112 88 54.2621
113 88 54.2621
114 88 54.2621
115 88 54.2621
116 88 54.2621
117 88 54.2621
118 88 54.2621
119 88 54.2621
0 89 54.2621
1 89 54.2621
2 89 54.2621
3 89 54.2621
4 89 54.2621
5 89 54.2621
6 89 54.2621
7 89 54.2621
8 89 54.2621
9 89 54.2621
10 89 54.2621
11 89 54.2621
12 89 54.2621
13 89 54.2621
14 89 54.2621
15 89 54.2621
16 89 54.2621
17 89 54.2621
18 89 54.2621
19 89 54.2621
20 89 54.2621
21 89 54.2621
22 89 54.2621
23 89 54.2621
24 89 54.2621
25 89 54.2621
26 89 54.2621
27 89 54.2621
28 89 54.2621
29 89 54.2621
30 89 73.4331
31 89 85.1596
32 89 93.2517
33 89 98.9016
34 89 103.403
35 89 107.235
36 89 110.316
37 89 113.002
38 89 115.465
39 89 117.785
40 89 119.92
41 89 121.802
42 89 123.487
43 89 124.994
44 89 126.389
45 89 127.536
46 89 128.654
47 89 129.796
48 89 130.993
49 89 132.226
50 89 133.579
51 89 134.849
52 89 136.072
53 89 137.178
54 89 138.172
55 89 139.067
56 89 139.804
57 89 140.427
58 89 140.963
59 89 141.322
60 89 141.399
61 89 141.118
62 89 140.46
63 89 139.478
64 89 138.399
65 89 137.758
66 89 137.641
67 89 137.761
68 89 137.82
69 89 137.913
70 89 138.188
71 89 138.548
72 89 138.773
73 89 138.838
74 89 138.705
75 89 138.328
76 89 137.776
77 89 137.045
78 89 136.106
79 89 134.756
80 89 133.121
81 89 131.397
82 89 129.527
83 89 127.558
84 89 125.476
85 89 123.221
86 89 120.893
87 89 118.403
88 89 115.86
89 89 113.14
90 89 110.091
91 89 106.455
92 89 101.495
93 89 87.2359
94 89 54.2621
95 89 54.2621
96 89 54.2621
97 89 54.2621
98 89 54.2621
99 89 54.2621
100 89 54.2621
101 89 54.2621
102 89 54.2621
103 89 54.2621
104 89 54.2621
105 89 54.2621
106 89 54.2621
107 89 54.2621
108 89 54.2621
109 89 54.2621
110 89 54.2621
111 89 54.2621
112 89 54.2621
113 89 54.2621
114 89 54.2621
115 89 54.2621
116 89 54.2621
117 89 54.2621
118 89 54.2621
119 89 54.2621
0 90 54.2621
1 90 54.2621
2 90 54.2621
3 90 54.2621
4 90 54.2621
5 90 54.2621
6 90 54.2621
7 90 54.2621
8 90 54.2621
9 90 54.2621
10 90 54.2621
11 90 54.2621
12 90 54.2621
13 90 54.2621
14 90 54.2621
15 90 54.2621
16 90 54.2621
17 90 54.2621
18 90 54.2621
19 90 54.2621
20 90 54.2621
21 90 54.2621
22 90 54.2621
23 90 54.2621
24 90 54.2621
25 90 54.2621
26 90 54.2621
27 90 54.2621
28 90 54.2621
29 90 54.2621
30 90 67.9706
31 90 81.7419
32 90 91.4071
33 90 97.4265
34 90 102.179
35 90 106.166
36 90 109.463
37 90 112.252
38 90 114.833
39 90 117.272
40 90 119.51
41 90 121.449
42 90 123.249
43 90 124.843
44 90 126.329
45 90 127.555
46 90 128.794
47 90 130.077
48 90 131.345
49 90 132.723
50 90 134.172
51 90 135.403
52 90 136.553
53 90 137.612
54 90 138.618
55 90 139.495
56 90 140.28
57 90 140.962
58 90 141.579
59 90 142.023
60 90 142.182
61 90 142.038
62 90 141.702
63 90 140.989
64 90 140.042
65 90 139.329
66 90 139.008
67 90 139.129
68 90 139.301
69 90 139.411
70 90 139.554
71 90 139.806
72 90 140.047
73 90 139.976
74 90 139.754
75 90 139.229
76 90 138.559
77 90 137.735
78 90 136.719
79 90 135.371
80 90 133.701
81 90 131.976
82 90 130.024
83 90 127.978
84 90 125.855
85 90 123.532
86 90 121.183
87 90 118.603
88 90 115.961
89 90 113.163
90 90 109.896
91 90 105.793
92 90 99.93
93 90 82.3038
94 90 54.2621
95 90 54.2621
96 90 54.2621
97 90 54.2621
98 90 54.2621
99 90 54.2621
100 90 54.2621
101 90 54.2621
102 90 54.2621
103 90 54.2621
104 90 54.2621
105 90 54.2621
106 90 54.2621
107 90 54.2621
108 90 54.2621
109 90 54.2621
110 90 54.2621
111 90 54.2621
112 90 54.2621
113 90 54.2621
114 90 54.2621
115 90 54.2621
116 90 54.2621
117 90 54.2621
118 90 54.2621
119 90 54.2621
0 91 54.2621
1 91 54.2621
2 91 54.2621
3 91 54.2621
4 91 54.2621
5 91 54.2621
6 91 54.2621
7 91 54.2621
8 91 54.2621
9 91 54.2621
10 91 54.2621
11 91 54.2621
12 91 54.2621
13 91 54.2621
14 91 54.2621
15 91 54.2621
16 91 54.2621
17 91 54.2621
18 91 54.2621
19 91 54.2621
20 91 54.2621
21 91 54.2621
22 91 54.2621
23 91 54.2621
24 91 54.2621
25 91 54.2621
26 91 54.2621
27 91 54.2621
28 91 54.2621
29 91 54.2621
30 91 61.824
31 91 77.9873
32 91 89.2208
33 91 96.2617
34 91 101.197
35 91 105.356
36 91 108.792
37 91 111.74
38 91 114.33
39 91 116.807
40 91 119.12
41 91 121.218
42 91 123.1
43 91 124.842
44 91 126.387
45 91 127.735
46 91 129.089
47 91 130.483
48 91 131.944
49 91 133.374
50 91 134.803
51 91 136.02
52 91 137.083
53 91 138.113
54 91 139.095
55 91 140.003
56 91 140.812
57 91 141.566
58 91 142.197
59 91 142.686
60 91 142.951
61 91 142.974
62 91 142.747
63 91 142.234
64 91 141.515
65 91 140.898
66 91 140.515
67 91 140.394
68 91 140.513
69 91 140.613
70 91 140.644
71 91 140.861
72 91 141.099
73 91 141.116
74 91 140.885
75 91 140.387
76 91 139.599
77 91 138.677
78 91 137.563
79 91 136.166
80 91 134.476
81 91 132.649
82 91 130.676
83 91 128.495
84 91 126.281
85 91 123.92
86 91 121.515
87 91 118.929
88 91 116.191
89 91 113.234
90 91 109.7
91 91 104.901
92 91 97.0271
93 91 72.6788
94 91 54.2621
95 91 54.2621
96 91 54.2621
97 91 54.2621
98 91 54.2621
99 91 54.2621
100 91 54.2621
101 91 54.2621
102 91 54.2621
103 91 54.2621
104 91 54.2621
105 91 54.2621
106 91 54.2621
107 91 54.2621
108 91 54.2621
109 91 54.2621
110 91 54.2621
111 91 54.2621
112 91 54.2621
113 91 54.2621
114 91 54.2621
115 91 54.2621
116 91 54.2621
117 91 54.2621
118 91 54.2621
119 91 54.2621
0 92 54.2621
1 92 54.2621
2 92 54.2621
3 92 54.2621
4 92 54.2621
5 92 54.2621
6 92 54.2621
7 92 54.2621
8 92 54.2621
9 92 54.2621
10 92 54.2621
11 92 54.2621
12 92 54.2621
13 92 54.2621
14 92 54.2621
15 92 54.2621
16 92 54.2621
17 92 54.2621
18 92 54.2621
19 92 54.2621
20 92 54.2621
21 92 54.2621
22 92 54.2621
23 92 54.2621
24 92 54.2621
25 92 54.2621
26 92 54.2621
27 92 54.2621
28 92 54.2621
29 92 54.2621
30 92 54.2621
31 92 72.5563
32 92 86.0887
33 92 95.1149
34 92 100.407
35 92 104.761
36 92 108.341
37 92 111.389
38 92 114.039
39 92 116.627
40 92 118.937
41 92 121.109
42 92 123.101
43 92 124.925
44 92 126.582
45 92 128.06
46 92 129.555
47 92 131.058
48 92 132.56
49 92 134.042
50 92 135.436
51 92 136.549
52 92 137.622
53 92 138.664
54 92 139.663
55 92 140.577
56 92 141.431
57 92 142.173
58 92 142.87
59 92 143.388
60 92 143.736
61 92 143.845
62 92 143.715
63 92 143.352
64 92 142.746
65 92 142.229
66 92 141.92
67 92 141.748
68 92 141.666
69 92 141.651
70 92 141.666
71 92 141.806
72 92 141.907
73 92 142.009
74 92 141.824
75 92 141.387
76 92 140.729
77 92 139.806
78 92 138.621
79 92 137.135
80 92 135.305
81 92 133.398
82 92 131.358
83 92 129.188
84 92 126.88
85 92 124.457
86 92 122.001
87 92 119.386
88 92 116.553
89 92 113.492
90 92 109.98
91 92 105.106
92 92 96.445
93 92 70.7855
94 92 54.2621
95 92 54.2621
96 92 54.2621
97 92 54.2621
98 92 54.2621
99 92 54.2621
100 92 54.2621
101 92 54.2621
102 92 54.2621
103 92 54.2621
104 92 54.2621
105 92 54.2621
106 92 54.2621
107 92 54.2621
108 92 54.2621
109 92 54.2621
110 92 54.2621
111 92 54.2621
112 92 54.2621
113 92 54.2621
114 92 54.2621
115 92 54.2621
116 92 54.2621
117 92 54.2621
118 92 54.2621
119 92 54.2621
0 93 54.2621
1 93 54.2621
2 93 54.2621
3 93 54.2621
4 93 54.2621
5 93 54.2621
6 93 54.2621
7 93 54.2621
8 93 54.2621
9 93 54.2621
10 93 54.2621
11 93 54.2621
12 93 54.2621
13 93 54.2621
14 93 54.2621
15 93 54.2621
16 93 54.2621
17 93 54.2621
18 93 54.2621
19 93 54.2621
20 93 54.2621
21 93 54.2621
22 93 54.2621
23 93 54.2621
24 93 54.2621
25 93 54.2621
26 93 54.2621
27 93 54.2621
28 93 54.2621
29 93 54.2621
30 93 54.2621
31 93 65.5972
32 93 82.828
33 93 93.9675
34 93 99.9572
35 93 104.381
36 93 108.062
37 93 111.143
38 93 113.874
39 93 116.536
40 93 118.937
41 93 121.094
42 93 123.205
43 93 125.143
44 93 126.929
45 93 128.561
46 93 130.189
47 93 131.72
48 93 133.213
49 93 134.702
50 93 136.025
51 93 137.159
52 93 138.289
53 93 139.358
54 93 140.288
55 93 141.244
56 93 142.083
57 93 142.839
58 93 143.561
59 93 144.115
60 93 144.5
61 93 144.658
62 93 144.64
63 93 144.326
64 93 143.817
65 93 143.408
66 93 143.136
67 93 142.968
68 93 142.847
69 93 142.722
70 93 142.623
71 93 142.652
72 93 142.683
73 93 142.797
74 93 142.689
75 93 142.34
76 93 141.761
77 93 140.841
78 93 139.637
79 93 138.131
80 93 136.272
81 93 134.279
82 93 132.149
83 93 129.917
84 93 127.538
85 93 125.11
86 93 122.545
87 93 119.908
88 93 117.007
89 93 114.064
90 93 110.701
91 93 106.178
92 93 98.0401
93 93 77.4674
94 93 54.2621
95 93 54.2621
96 93 54.2621
97 93 54.2621
98 93 54.2621
99 93 54.2621
100 93 54.2621
101 93 54.2621
102 93 54.2621
103 93 54.2621
104 93 54.2621
105 93 54.2621
106 93 54.2621
107 93 54.2621
108 93 54.2621
109 93 54.2621
110 93 54.2621
111 93 54.2621
112 93 54.2621
113 93 54.2621
114 93 54.2621
115 93 54.2621
116 93 54.2621
117 93 54.2621
118 93 54.2621
119 93 54.2621
0 94 54.2621
1 94 54.2621
2 94 54.2621
3 94 54.2621
4 94 54.2621
5 94 54.2621
6 94 54.2621
7 94 54.2621
8 94 54.2621
9 94 54.2621
10 94 54.2621
11 94 54.2621
12 94 54.2621
13 94 54.2621
14 94 54.2621
15 94 54.2621
16 94 54.2621
17 94 54.2621
18 94 54.2621
19 94 54.2621
20 94 54.2621
21 94 54.2621
22 94 54.2621
23 94 54.2621
24 94 54.2621
25 94 54.2621
26 94 54.2621
27 94 54.2621
28 94 54.2621
29 94 54.2621
30 94 54.2621
31 94 57.7149
32 94 78.9497
33 94 92.3216
34 94 99.6919
35 94 104.184
36 94 107.817
37 94 111.037
38 94 113.807
39 94 116.476
40 94 119
41 94 121.303
42 94 123.436
43 94 125.451
44 94 127.311
45 94 129.076
46 94 130.727
47 94 132.339
48 94 133.935
49 94 135.368
50 94 136.718
51 94 137.914
52 94 139.073
53 94 140.141
54 94 141.078
55 94 141.981
56 94 142.801
57 94 143.55
58 94 144.244
59 94 144.832
60 94 145.227
61 94 145.397
62 94 145.462
63 94 145.219
64 94 144.811
65 94 144.498
66 94 144.268
67 94 144.117
68 94 143.912
69 94 143.737
70 94 143.607
71 94 143.533
72 94 143.456
73 94 143.468
74 94 143.487
75 94 143.255
76 94 142.682
77 94 141.838
78 94 140.659
79 94 139.13
80 94 137.274
81 94 135.264
82 94 133.037
83 94 130.662
84 94 128.15
85 94 125.649
86 94 123.02
87 94 120.332
88 94 117.516
89 94 114.672
90 94 111.536
91 94 107.42
92 94 100.246
93 94 85.8005
94 94 54.2621
95 94 54.2621
96 94 54.2621
97 94 54.2621
98 94 54.2621
99 94 54.2621
100 94 54.2621
101 94 54.2621
102 94 54.2621
103 94 54.2621
104 94 54.2621
105 94 54.2621
106 94 54.2621
107 94 54.2621
108 94 54.2621
109 94 54.2621
110 94 54.2621
111 94 54.2621
112 94 54.2621
113 94 54.2621
114 94 54.2621
115 94 54.2621
116 94 54.2621
117 94 54.2621
118 94 54.2621
119 94 54.2621
0 95 54.2621
1 95 54.2621
2 95 54.2621
3 95 54.2621
4 95 54.2621
5 95 54.2621
6 95 54.2621
7 95 54.2621
8 95 54.2621
9 95 54.2621
10 95 54.2621
11 95 54.2621
12 95 54.2621
13 95 54.2621
14 95 54.2621
15 95 54.2621
16 95 54.2621
17 95 54.2621
18 95 54.2621
19 95 54.2621
20 95 54.2621
21 95 54.2621
22 95 54.2621
23 95 54.2621
24 95 54.2621
25 95 54.2621
26 95 54.2621
27 95 54.2621
28 95 54.2621
29 95 54.2621
30 95 54.2621
31 95 54.2621
32 95 74.466
33 95 90.1289
34 95 98.9663
35 95 104.242
36 95 107.87
37 95 111.101
38 95 113.888
39 95 116.622
40 95 119.191
41 95 121.537
42 95 123.794
43 95 125.894
44 95 127.802
45 95 129.611
46 95 131.348
47 95 133.046
48 95 134.624
49 95 136.195
50 95 137.612
51 95 138.897
52 95 140.073
53 95 141.133
54 95 141.996
55 95 142.822
56 95 143.561
57 95 144.273
58 95 144.962
59 95 145.548
60 95 145.955
61 95 146.167
62 95 146.247
63 95 146.095
64 95 145.753
65 95 145.542
66 95 145.302
67 95 145.099
68 95 144.894
69 95 144.719
70 95 144.513
71 95 144.378
72 95 144.347
73 95 144.258
74 95 144.265
75 95 144.071
76 95 143.644
77 95 142.82
78 95 141.691
79 95 140.143
80 95 138.292
81 95 136.214
82 95 133.937
83 95 131.465
84 95 128.88
85 95 126.219
86 95 123.571
87 95 120.844
88 95 118.079
89 95 115.27
90 95 112.119
91 95 108.301
92 95 90.0369
93 95 54.2621
94 95 54.2621
95 95 54.2621
96 95 54.2621
97 95 54.2621
98 95 54.2621
99 95 54.2621
100 95 54.2621
101 95 54.2621
102 95 54.2621
103 95 54.2621
104 95 54.2621
105 95 54.2621
106 95 54.2621
107 95 54.2621
108 95 54.2621
109 95 54.2621
110 95 54.2621
111 95 54.2621
112 95 54.2621
113 95 54.2621
114 95 54.2621
115 95 54.2621
116 95 54.2621
117 95 54.2621
118 95 54.2621
119 95 54.2621
0 96 54.2621
1 96 54.2621
2 96 54.2621
3 96 54.2621
4 96 54.2621
5 96 54.2621
6 96 54.2621
7 96 54.2621
8 96 54.2621
9 96 54.2621
10 96 54.2621
11 96 54.2621
12 96 54.2621
13 96 54.2621
14 96 54.2621
15 96 54.2621
16 96 54.2621
17 96 54.2621
18 96 54.2621
19 96 54.2621
20 96 54.2621
21 96 54.2621
22 96 54.2621
23 96 54.2621
24 96 54.2621
25 96 54.2621
26 96 54.2621
27 96 54.2621
28 96 54.2621
29 96 54.2621
30 96 54.2621
31 96 54.2621
32 96 68.2274
33 96 87.0068
34 96 98.0291
35 96 104.201
36 96 108.123
37 96 111.275
38 96 114.141
39 96 116.917
40 96 119.517
41 96 121.921
42 96 124.215
43 96 126.344
44 96 128.306
45 96 130.142
46 96 132.012
47 96 133.696
48 96 135.611
49 96 137.25
50 96 138.759
51 96 140.088
52 96 141.251
53 96 142.265
54 96 143.069
55 96 143.816
56 96 144.445
57 96 145.049
58 96 145.65
59 96 146.224
60 96 146.656
61 96 146.899
62 96 147.022
63 96 146.937
64 96 146.704
65 96 146.506
66 96 146.302
67 96 146.129
68 96 145.95
69 96 145.732
70 96 145.56
71 96 145.33
72 96 145.249
73 96 145.177
74 96 145.175
75 96 144.983
76 96 144.562
77 96 143.811
78 96 142.743
79 96 141.137
80 96 139.273
81 96 137.201
82 96 134.872
83 96 132.276
84 96 129.588
85 96 126.939
86 96 124.329
87 96 121.614
88 96 118.845
89 96 116.006
90 96 112.707
91 96 107.395
92 96 81.8268
93 96 54.2621
94 96 54.2621
95 96 54.2621
96 96 54.2621
97 96 54.2621
98 96 54.2621
99 96 54.2621
100 96 54.2621
101 96 54.2621
102 96 54.2621
103 96 54.2621
104 96 54.2621
105 96 54.2621
106 96 54.2621
107 96 54.2621
108 96 54.2621
109 96 54.2621
110 96 54.2621
111 96 54.2621
112 96 54.2621
113 96 54.2621
114 96 54.2621
115 96 54.2621
116 96 54.2621
117 96 54.2621
118 96 54.2621
119 96 54.2621
0 97 54.2621
1 97 54.2621
2 97 54.2621
3 97 54.2621
4 97 54.2621
5 97 54.2621
6 97 54.2621
7 97 54.2621
8 97 54.2621
9 97 54.2621
10 97 54.2621
11 97 54.2621
12 97 54.2621
13 97 54.2621
14 97 54.2621
15 97 54.2621
16 97 54.2621
17 97 54.2621
18 97 54.2621
19 97 54.2621
20 97 54.2621
21 97 54.2621
22 97 54.2621
23 97 54.2621
24 97 54.2621
25 97 54.2621
26 97 54.2621
27 97 54.2621
28 97 54.2621
29 97 54.2621
30 97 54.2621
31 97 54.2621
32 97 63.1353
33 97 83.3938
34 97 96.662
35 97 104.042
36 97 108.33
37 97 111.576
38 97 114.504
39 97 117.273
40 97 119.95
41 97 122.403
42 97 124.726
43 97 126.845
44 97 128.832
45 97 130.823
46 97 132.624
47 97 134.769
48 97 136.87
49 97 138.686
50 97 140.198
51 97 141.59
52 97 142.707
53 97 143.631
54 97 144.331
55 97 144.957
56 97 145.577
57 97 146.162
58 97 146.752
59 97 147.244
60 97 147.651
61 97 147.904
62 97 147.98
63 97 147.846
64 97 147.659
65 97 147.508
66 97 147.296
67 97 147.118
68 97 146.976
69 97 146.802
70 97 146.62
71 97 146.422
72 97 146.245
73 97 146.197
74 97 146.207
75 97 146.004
76 97 145.534
77 97 144.79
78 97 143.717
79 97 142.165
80 97 140.268
81 97 138.178
82 97 135.864
83 97 133.172
84 97 130.425
85 97 127.762
86 97 125.091
87 97 122.41
88 97 119.694
89 97 116.96
90 97 113.846
91 97 108.519
92 97 96.0343
93 97 54.2621
94 97 54.2621
95 97 54.2621
96 97 54.2621
97 97 54.2621
98 97 54.2621
99 97 54.2621
100 97 54.2621
101 97 54.2621
102 97 54.2621
103 97 54.2621
104 97 54.2621
105 97 54.2621
106 97 54.2621
107 97 54.2621
108 97 54.2621
109 97 54.2621
110 97 54.2621
111 97 54.2621
112 97 54.2621
113 97 54.2621
114 97 54.2621
115 97 54.2621
116 97 54.2621
117 97 54.2621
118 97 54.2621
119 97 54.2621
0 98 54.2621
1 98 54.2621
2 98 54.2621
3 98 54.2621
4 98 54.2621
5 98 54.2621
6 98 54.2621
7 98 54.2621
8 98 54.2621
9 98 54.2621
10 98 54.2621
11 98 54.2621
12 98 54.2621
13 98 54.2621
14 98 54.2621
15 98 54.2621
16 98 54.2621
17 98 54.2621
18 98 54.2621
19 98 54.2621
20 98 54.2621
21 98 54.2621
22 98 54.2621
23 98 54.2621
24 98 54.2621
25 98 54.2621
26 98 54.2621
27 98 54.2621
28 98 54.2621
29 98 54.2621
30 98 54.2621
31 98 54.2621
32 98 54.2621
33 98 77.1443
34 98 94.0508
35 98 103.302
36 98 108.398
37 98 111.954
38 98 114.799
39 98 117.655
40 98 120.383
41 98 122.897
42 98 125.201
43 98 127.35
44 98 129.375
45 98 131.361
46 98 133.672
47 98 136.177
48 98 138.504
49 98 140.379
50 98 141.982
51 98 143.351
52 98 144.349
53 98 145.153
54 98 145.914
55 98 146.543
56 98 147.057
57 98 147.574
58 98 148.129
59 98 148.637
60 98 148.905
61 98 148.962
62 98 148.968
63 98 148.798
64 98 148.623
65 98 148.45
66 98 148.287
67 98 148.123
68 98 148.01
69 98 147.869
70 98 147.743
71 98 147.567
72 98 147.377
73 98 147.294
74 98 147.29
75 98 147.087
76 98 146.638
77 98 145.898
78 98 144.783
79 98 143.305
80 98 141.409
81 98 139.289
82 98 136.929
83 98 134.213
84 98 131.287
85 98 128.489
86 98 125.774
87 98 123.042
88 98 120.441
89 98 117.797
90 98 115.264
91 98 102.411
92 98 54.2621
93 98 54.2621
94 98 54.2621
95 98 54.2621
96 98 54.2621
97 98 54.2621
98 98 54.2621
99 98 54.2621
100 98 54.2621
101 98 54.2621
102 98 54.2621
103 98 54.2621
104 98 54.2621
105 98 54.2621
106 98 54.2621
107 98 54.2621
108 98 54.2621
109 98 54.2621
110 98 54.2621
111 98 54.2621
112 98 54.2621
113 98 54.2621
114 98 54.2621
115 98 54.2621
116 98 54.2621
117 98 54.2621
118 98 54.2621
119 98 54.2621
0 99 54.2621
1 99 54.2621
2 99 54.2621
3 99 54.2621
4 99 54.2621
5 99 54.2621
6 99 54.2621
7 99 54.2621
8 99 54.2621
9 99 54.2621
10 99 54.2621
11 99 54.2621
12 99 54.2621
13 99 54.2621
14 99 54.2621
15 99 54.2621
16 99 54.2621
17 99 54.2621
18 99 54.2621
19 99 54.2621
20 99 54.2621
21 99 54.2621
22 99 54.2621
23 99 54.2621
24 99 54.2621
25 99 54.2621
26 99 54.2621
27 99 54.2621
28 99 54.2621
29 99 54.2621
30 99 54.2621
31 99 54.2621
32 99 54.2621
33 99 54.2621
34 99 89.2913
35 99 101.888
36 99 108.169
37 99 112.307
38 99 115.274
39 99 118.173
40 99 120.987
41 99 123.47
42 99 125.745
43 99 127.844
44 99 129.888
45 99 132.239
46 99 135.159
47 99 138.079
48 99 140.386
49 99 142.47
50 99 144.236
51 99 145.552
52 99 146.604
53 99 147.427
54 99 148.084
55 99 148.63
56 99 149.104
57 99 149.526
58 99 149.879
59 99 150.048
60 99 150.187
61 99 150.051
62 99 149.941
63 99 149.764
64 99 149.612
65 99 149.429
66 99 149.276
67 99 149.118
68 99 149.03
69 99 148.908
70 99 148.815
71 99 148.692
72 99 148.564
73 99 148.438
74 99 148.466
75 99 148.28
76 99 147.83
77 99 147.085
78 99 145.956
79 99 144.466
80 99 142.644
81 99 140.542
82 99 138.075
83 99 135.271
84 99 132.325
85 99 129.257
86 99 126.412
87 99 123.772
88 99 121.114
89 99 118.26
90 99 115.231
91 99 95.0732
92 99 54.2621
93 99 54.2621
94 99 54.2621
95 99 54.2621
96 99 54.2621
97 99 54.2621
98 99 54.2621
99 99 54.2621
100 99 54.2621
101 99 54.2621
102 99 54.2621
103 99 54.2621
104 99 54.2621
105 99 54.2621
106 99 54.2621
107 99 54.2621
108 99 54.2621
109 99 54.2621
110 99 54.2621
111 99 54.2621
112 99 54.2621
113 99 54.2621
114 99 54.2621
115 99 54.2621
116 99 54.2621
117 99 54.2621
118 99 54.2621
119 99 54.2621
0 100 54.2621
1 100 54.2621
2 100 54.2621
3 100 54.2621
4 100 54.2621
5 100 54.2621
6 100 54.2621
7 100 54.2621
8 100 54.2621
9 100 54.2621
10 100 54.2621
11 100 54.2621
12 100 54.2621
13 100 54.2621
14 100 54.2621
15 100 54.2621
16 100 54.2621
17 100 54.2621
18 100 54.2621
19 100 54.2621
20 100 54.2621
21 100 54.2621
22 100 54.2621
23 100 54.2621
24 100 54.2621
25 100 54.2621
26 100 54.2621
27 100 54.2621
28 100 54.2621
29 100 54.2621
30 100 54.2621
31 100 54.2621
32 100 54.2621
33 100 54.2621
34 100 83.3605
35 100 100.295
36 100 107.689
37 100 112.356
38 100 115.685
39 100 118.698
40 100 121.531
41 100 124.053
42 100 126.351
43 100 128.274
44 100 130.74
45 100 133.886
46 100 137.42
47 100 140.309
48 100 142.814
49 100 144.911
50 100 146.624
51 100 147.816
52 100 148.764
53 100 149.555
54 100 150.128
55 100 150.645
56 100 151.041
57 100 151.307
58 100 151.473
59 100 151.494
60 100 151.461
61 100 151.223
62 100 151.007
63 100 150.757
64 100 150.556
65 100 150.39
66 100 150.289
67 100 150.167
68 100 150.092
69 100 149.964
70 100 149.896
71 100 149.82
72 100 149.741
73 100 149.7
74 100 149.734
75 100 149.515
76 100 148.993
77 100 148.194
78 100 147.112
79 100 145.616
80 100 143.838
81 100 141.826
82 100 139.385
83 100 136.569
84 100 133.428
85 100 130.3
86 100 127.318
87 100 124.374
88 100 121.732
89 100 118.99
90 100 114.393
91 100 54.2621
92 100 54.2621
93 100 54.2621
94 100 54.2621
95 100 54.2621
96 100 54.2621
97 100 54.2621
98 100 54.2621
99 100 54.2621
100 100 54.2621
101 100 54.2621
102 100 54.2621
103 100 54.2621
104 100 54.2621
105 100 54.2621
106 100 54.2621
107 100 54.2621
108 100 54.2621
109 100 54.2621
110 100 54.2621
111 100 54.2621
112 100 54.2621
113 100 54.2621
114 100 54.2621
115 100 54.2621
116 100 54.2621
117 100 54.2621
118 100 54.2621
119 100 54.2621
0 101 54.2621
1 101 54.2621
2 101 54.2621
3 101 54.2621
4 101 54.2621
5 101 54.2621
6 101 54.2621
7 101 54.2621
8 101 54.2621
9 101 54.2621
10 101 54.2621
11 101 54.2621
12 101 54.2621
13 101 54.2621
14 101 54.2621
15 101 54.2621
16 101 54.2621
17 101 54.2621
18 101 54.2621
19 101 54.2621
20 101 54.2621
21 101 54.2621
22 101 54.2621
23 101 54.2621
24 101 54.2621
25 101 54.2621
26 101 54.2621
27 101 54.2621
28 101 54.2621
29 101 54.2621
30 101 54.2621
31 101 54.2621
32 101 54.2621
33 101 54.2621
34 101 54.2621
35 101 97.1154
36 101 107.139
37 101 112.433
38 101 115.87
39 101 119.118
40 101 122.114
41 101 124.666
42 101 126.786
43 101 128.899
44 101 132.411
45 101 136.581
46 101 140.171
47 101 143.061
48 101 145.366
49 101 147.288
50 101 148.855
51 101 149.959
52 101 150.823
53 101 151.523
54 101 152.052
55 101 152.429
56 101 152.669
57 101 152.797
58 101 152.785
59 101 152.646
60 101 152.427
61 101 152.116
62 101 151.823
63 101 151.628
64 101 151.451
65 101 151.354
66 101 151.293
67 101 151.199
68 101 151.112
69 101 151.057
70 101 151.022
71 101 150.929
72 101 150.957
73 101 150.942
74 101 150.915
75 101 150.661
76 101 150.136
77 101 149.311
78 101 148.148
79 101 146.749
80 101 145.026
81 101 143.046
82 101 140.731
83 101 138.002
84 101 134.851
85 101 131.355
86 101 128.216
87 101 125.157
88 101 122.37
89 101 119.447
90 101 113.466
91 101 54.2621
92 101 54.2621
93 101 54.2621
94 101 54.2621
95 101 54.2621
96 101 54.2621
97 101 54.2621
98 101 54.2621
99 101 54.2621
100 101 54.2621
101 101 54.2621
102 101 54.2621
103 101 54.2621
104 101 54.2621
105 101 54.2621
106 101 54.2621
107 101 54.2621
108 101 54.2621
109 101 54.2621
110 101 54.2621
111 101 54.2621
112 101 54.2621
113 101 54.2621
114 101 54.2621
115 101 54.2621
116 101 54.2621
117 101 54.2621
118 101 54.2621
119 101 54.2621
0 102 54.2621
1 102 54.2621
2 102 54.2621
3 102 54.2621
4 102 54.2621
5 102 54.2621
6 102 54.2621
7 102 54.2621
8 102 54.2621
9 102 54.2621
10 102 54.2621
11 102 54.2621
12 102 54.2621
13 102 54.2621
14 102 54.2621
15 102 54.2621
16 102 54.2621
17 102 54.2621
18 102 54.2621
19 102 54.2621
20 102 54.2621
21 102 54.2621
22 102 54.2621
23 102 54.2621
24 102 54.2621
25 102 54.2621
26 102 54.2621
27 102 54.2621
28 102 54.2621
29 102 54.2621
30 102 54.2621
31 102 54.2621
32 102 54.2621
33 102 54.2621
34 102 54.2621
35 102 92.1485
36 102 106.775
37 102 112.578
38 102 116.038
39 102 119.5
40 102 122.694
41 102 125.377
42 102 127.329
43 102 130.429
44 102 135.431
45 102 139.842
46 102 143.118
47 102 145.77
48 102 147.833
49 102 149.56
50 102 150.952
51 102 151.918
52 102 152.691
53 102 153.285
54 102 153.709
55 102 153.962
56 102 154.047
57 102 154.067
58 102 153.864
59 102 153.546
60 102 153.235
61 102 152.975
62 102 152.73
63 102 152.543
64 102 152.412
65 102 152.34
66 102 152.285
67 102 152.253
68 102 152.183
69 102 152.153
70 102 152.116
71 102 152.083
72 102 152.143
73 102 152.058
74 102 151.966
75 102 151.73
76 102 151.19
77 102 150.354
78 102 149.237
79 102 147.814
80 102 146.144
81 102 144.244
82 102 142.011
83 102 139.384
84 102 136.38
85 102 132.882
86 102 129.235
87 102 125.688
88 102 122.431
89 102 119.459
90 102 111.122
91 102 54.2621
92 102 54.2621
93 102 54.2621
94 102 54.2621
95 102 54.2621
96 102 54.2621
97 102 54.2621
98 102 54.2621
99 102 54.2621
100 102 54.2621
101 102 54.2621
102 102 54.2621
103 102 54.2621
104 102 54.2621
105 102 54.2621
106 102 54.2621
107 102 54.2621
108 102 54.2621
109 102 54.2621
110 102 54.2621
111 102 54.2621
112 102 54.2621
113 102 54.2621
114 102 54.2621
115 102 54.2621
116 102 54.2621
117 102 54.2621
118 102 54.2621
119 102 54.2621
0 103 54.2621
1 103 54.2621
2 103 54.2621
3 103 54.2621
4 103 54.2621
5 103 54.2621
6 103 54.2621
7 103 54.2621
8 103 54.2621
9 103 54.2621
10 103 54.2621
11 103 54.2621
12 103 54.2621
13 103 54.2621
14 103 54.2621
15 103 54.2621
16 103 54.2621
17 103 54.2621
18 103 54.2621
19 103 54.2621
20 103 54.2621
21 103 54.2621
22 103 54.2621
23 103 54.2621
24 103 54.2621
25 103 54.2621
26 103 54.2621
27 103 54.2621
28 103 54.2621
29 103 54.2621
30 103 54.2621
31 103 54.2621
32 103 54.2621
33 103 54.2621
34 103 54.2621
35 103 85.1058
36 103 106.341
37 103 112.841
38 103 116.165
39 103 119.961
40 103 123.416
41 103 126.1
42 103 128.605
43 103 133.663
44 103 138.994
45 103 142.881
46 103 145.842
47 103 148.254
48 103 150.076
49 103 151.611
50 103 152.826
51 103 153.637
52 103 154.313
53 103 154.812
54 103 155.091
55 103 155.293
56 103 155.274
57 103 155.057
58 103 154.746
59 103 154.484
60 103 154.198
61 103 153.925
62 103 153.703
63 103 153.501
64 103 153.383
65 103 153.34
66 103 153.296
67 103 153.261
68 103 153.29
69 103 153.223
70 103 153.244
71 103 153.273
72 103 153.238
73 103 153.132
74 103 152.983
75 103 152.719
76 103 152.183
77 103 151.377
78 103 150.281
79 103 148.89
80 103 147.232
81 103 145.467
82 103 143.309
83 103 140.812
84 103 138.046
85 103 134.749
86 103 131.008
87 103 126.942
88 103 122.947
89 103 120.15
90 103 54.2621
91 103 54.2621
92 103 54.2621
93 103 54.2621
94 103 54.2621
95 103 54.2621
96 103 54.2621
97 103 54.2621
98 103 54.2621
99 103 54.2621
100 103 54.2621
101 103 54.2621
102 103 54.2621
103 103 54.2621
104 103 54.2621
105 103 54.2621
106 103 54.2621
107 103 54.2621
108 103 54.2621
109 103 54.2621
110 103 54.2621
111 103 54.2621
112 103 54.2621
113 103 54.2621
114 103 54.2621
115 103 54.2621
116 103 54.2621
117 103 54.2621
118 103 54.2621
119 103 54.2621
0 104 54.2621
1 104 54.2621
2 104 54.2621
3 104 54.2621
4 104 54.2621
5 104 54.2621
6 104 54.2621
7 104 54.2621
8 104 54.2621
9 104 54.2621
10 104 54.2621
11 104 54.2621
12 104 54.2621
13 104 54.2621
14 104 54.2621
15 104 54.2621
16 104 54.2621
17 104 54.2621
18 104 54.2621
19 104 54.2621
20 104 54.2621
21 104 54.2621
22 104 54.2621
23 104 54.2621
24 104 54.2621
25 104 54.2621
26 104 54.2621
27 104 54.2621
28 104 54.2621
29 104 54.2621
30 104 54.2621
31 104 54.2621
32 104 54.2621
33 104 54.2621
34 104 54.2621
35 104 54.2621
36 104 102.294
37 104 112.58
38 104 115.926
39 104 120.232
40 104 124.239
41 104 126.688
42 104 131.387
43 104 137.766
44 104 142.23
45 104 145.751
46 104 148.339
47 104 150.525
48 104 152.176
49 104 153.521
50 104 154.538
51 104 155.226
52 104 155.774
53 104 156.153
54 104 156.377
55 104 156.445
56 104 156.363
57 104 156.121
58 104 155.85
59 104 155.59
60 104 155.284
61 104 154.993
62 104 154.75
63 104 154.563
64 104 154.433
65 104 154.367
66 104 154.362
67 104 154.333
68 104 154.354
69 104 154.368
70 104 154.386
71 104 154.354
72 104 154.275
73 104 154.108
74 104 153.916
75 104 153.656
76 104 153.119
77 104 152.343
78 104 151.283
79 104 149.94
80 104 148.33
81 104 146.604
82 104 144.653
83 104 142.251
84 104 139.654
85 104 136.69
86 104 133.264
87 104 129.327
88 104 125.478
89 104 121.713
90 104 54.2621
91 104 54.2621
92 104 54.2621
93 104 54.2621
94 104 54.2621
95 104 54.2621
96 104 54.2621
97 104 54.2621
98 104 54.2621
99 104 54.2621
100 104 54.2621
101 104 54.2621
102 104 54.2621
103 104 54.2621
104 104 54.2621
105 104 54.2621
106 104 54.2621
107 104 54.2621
108 104 54.2621
109 104 54.2621
110 104 54.2621
111 104 54.2621
112 104 54.2621
113 104 54.2621
114 104 54.2621
115 104 54.2621
116 104 54.2621
117 104 54.2621
118 104 54.2621
119 104 54.2621
0 105 54.2621
1 105 54.2621
2 105 54.2621
3 105 54.2621
4 105 54.2621
5 105 54.2621
6 105 54.2621
7 105 54.2621
8 105 54.2621
9 105 54.2621
10 105 54.2621
11 105 54.2621
12 105 54.2621
13 105 54.2621
14 105 54.2621
15 105 54.2621
16 105 54.2621
17 105 54.2621
18 105 54.2621
19 105 54.2621
20 105 54.2621
21 105 54.2621
22 105 54.2621
23 105 54.2621
24 105 54.2621
25 105 54.2621
26 105 54.2621
27 105 54.2621
28 105 54.2621
29 105 54.2621
30 105 54.2621
31 105 54.2621
32 105 54.2621
33 105 54.2621
34 105 54.2621
35 105 54.2621
36 105 98.4085
37 105 112.167
38 105 115.559
39 105 120.414
40 105 124.851
41 105 128.911
42 105 135.671
43 105 141.319
44 105 145.23
45 105 148.347
46 105 150.711
47 105 152.636
48 105 154.11
49 105 155.229
50 105 156.091
51 105 156.613
52 105 157.018
53 105 157.323
54 105 157.439
55 105 157.438
56 105 157.318
57 105 157.11
58 105 156.866
59 105 156.656
60 105 156.405
61 105 156.169
62 105 155.966
63 105 155.73
64 105 155.548
65 105 155.443
66 105 155.395
67 105 155.372
68 105 155.449
69 105 155.494
70 105 155.437
71 105 155.353
72 105 155.209
73 105 155.02
74 105 154.786
75 105 154.501
76 105 154.035
77 105 153.277
78 105 152.277
79 105 150.953
80 105 149.428
81 105 147.709
82 105 145.819
83 105 143.692
84 105 141.181
85 105 138.381
86 105 135.424
87 105 131.901
88 105 128.2
89 105 123.716
90 105 54.2621
91 105 54.2621
92 105 54.2621
93 105 54.2621
94 105 54.2621
95 105 54.2621
96 105 54.2621
97 105 54.2621
98 105 54.2621
99 105 54.2621
100 105 54.2621
101 105 54.2621
102 105 54.2621
103 105 54.2621
104 105 54.2621
105 105 54.2621
106 105 54.2621
107 105 54.2621
108 105 54.2621
109 105 54.2621
110 105 54.2621
111 105 54.2621
112 105 54.2621
113 105 54.2621
114 105 54.2621
115 105 54.2621
116 105 54.2621
117 105 54.2621
118 105 54.2621
119 105 54.2621
0 106 54.2621
1 106 54.2621
2 106 54.2621
3 106 54.2621
4 106 54.2621
5 106 54.2621
6 106 54.2621
7 106 54.2621
8 106 54.2621
9 106 54.2621
10 106 54.2621
11 106 54.2621
12 106 54.2621
13 106 54.2621
14 106 54.2621
15 106 54.2621
16 106 54.2621
17 106 54.2621
18 106 54.2621
19 106 54.2621
20 106 54.2621
21 106 54.2621
22 106 54.2621
23 106 54.2621
24 106 54.2621
25 106 54.2621
26 106 54.2621
27 106 54.2621
28 106 54.2621
29 106 54.2621
30 106 54.2621
31 106 54.2621
32 106 54.2621
33 106 54.2621
34 106 54.2621
35 106 54.2621
36 106 54.2621
37 106 109.776
38 106 114.815
39 106 121.141
40 106 126.054
41 106 132.88
42 106 139.775
43 106 144.457
44 106 147.943
45 106 150.723
46 106 152.85
47 106 154.59
48 106 155.817
49 106 156.719
50 106 157.428
51 106 157.797
52 106 158.062
53 106 158.269
54 106 158.35
55 106 158.32
56 106 158.201
57 106 158.03
58 106 157.81
59 106 157.599
60 106 157.428
61 106 157.225
62 106 157.044
63 106 156.868
64 106 156.716
65 106 156.63
66 106 156.525
67 106 156.513
68 106 156.531
69 106 156.495
70 106 156.404
71 106 156.304
72 106 156.158
73 106 155.891
74 106 155.576
75 106 155.304
76 106 154.851
77 106 154.136
78 106 153.192
79 106 151.933
80 106 150.422
81 106 148.811
82 106 147.002
83 106 144.933
84 106 142.584
85 106 139.98
86 106 137.18
87 106 134.053
88 106 130.59
89 106 126.191
90 106 54.2621
91 106 54.2621
92 106 54.2621
93 106 54.2621
94 106 54.2621
95 106 54.2621
96 106 54.2621
97 106 54.2621
98 106 54.2621
99 106 54.2621
100 106 54.2621
101 106 54.2621
102 106 54.2621
103 106 54.2621
104 106 54.2621
105 106 54.2621
106 106 54.2621
107 106 54.2621
108 106 54.2621
109 106 54.2621
110 106 54.2621
111 106 54.2621
112 106 54.2621
113 106 54.2621
114 106 54.2621
115 106 54.2621
116 106 54.2621
117 106 54.2621
118 106 54.2621
119 106 54.2621
0 107 54.2621
1 107 54.2621
2 107 54.2621
3 107 54.2621
4 107 54.2621
5 107 54.2621
6 107 54.2621
7 107 54.2621
8 107 54.2621
9 107 54.2621
10 107 54.2621
11 107 54.2621
12 107 54.2621
13 107 54.2621
14 107 54.2621
15 107 54.2621
16 107 54.2621
17 107 54.2621
18 107 54.2621
19 107 54.2621
20 107 54.2621
21 107 54.2621
22 107 54.2621
23 107 54.2621
24 107 54.2621
25 107 54.2621
26 107 54.2621
27 107 54.2621
28 107 54.2621
29 107 54.2621
30 107 54.2621
31 107 54.2621
32 107 54.2621
33 107 54.2621
34 107 54.2621
35 107 54.2621
36 107 54.2621
37 107 107.956
38 107 113.267
39 107 120.779
40 107 129.637
41 107 137.866
42 107 143.212
43 107 147.292
44 107 150.446
45 107 152.929
46 107 154.83
47 107 156.286
48 107 157.337
49 107 158.066
50 107 158.628
51 107 158.78
52 107 158.953
53 107 159.112
54 107 159.174
55 107 159.136
56 107 159.04
57 107 158.878
58 107 158.698
59 107 158.52
60 107 158.348
61 107 158.207
62 107 158.066
63 107 157.917
64 107 157.79
65 107 157.71
66 107 157.623
67 107 157.563
68 107 157.52
69 107 157.424
70 107 157.349
71 107 157.186
72 107 156.958
73 107 156.678
74 107 156.4
75 107 156.039
76 107 155.617
77 107 154.978
78 107 154.075
79 107 152.924
80 107 151.427
81 107 149.853
82 107 148.163
83 107 146.22
84 107 144.003
85 107 141.516
86 107 138.846
87 107 135.856
88 107 132.586
89 107 128.879
90 107 126.888
91 107 54.2621
92 107 54.2621
93 107 54.2621
94 107 54.2621
95 107 54.2621
96 107 54.2621
97 107 54.2621
98 107 54.2621
99 107 54.2621
100 107 54.2621
101 107 54.2621
102 107 54.2621
103 107 54.2621
104 107 54.2621
105 107 54.2621
106 107 54.2621
107 107 54.2621
108 107 54.2621
109 107 54.2621
110 107 54.2621
111 107 54.2621
112 107 54.2621
113 107 54.2621
114 107 54.2621
115 107 54.2621
116 107 54.2621
117 107 54.2621
118 107 54.2621
119 107 54.2621
0 108 54.2621
1 108 54.2621
2 108 54.2621
3 108 54.2621
4 108 54.2621
5 108 54.2621
6 108 54.2621
7 108 54.2621
8 108 54.2621
9 108 54.2621
10 108 54.2621
11 108 54.2621
12 108 54.2621
13 108 54.2621
14 108 54.2621
15 108 54.2621
16 108 54.2621
17 108 54.2621
18 108 54.2621
19 108 54.2621
20 108 54.2621
21 108 54.2621
22 108 54.2621
23 108 54.2621
24 108 54.2621
25 108 54.2621
26 108 54.2621
27 108 54.2621
28 108 54.2621
29 108 54.2621
30 108 54.2621
31 108 54.2621
32 108 54.2621
33 108 54.2621
34 108 54.2621
35 108 54.2621
36 108 54.2621
37 108 54.2621
38 108 54.2621
39 108 54.2621
40 108 134.407
41 108 141.538
42 108 146.39
43 108 149.931
44 108 152.75
45 108 154.871
46 108 156.468
47 108 157.801
48 108 158.655
49 108 159.253
50 108 159.584
51 108 159.725
52 108 159.718
53 108 159.789
54 108 159.845
55 108 159.879
56 108 159.843
57 108 159.691
58 108 159.526
59 108 159.351
60 108 159.214
61 108 159.115
62 108 159.014
63 108 158.893
64 108 158.822
65 108 158.741
66 108 158.617
67 108 158.542
68 108 158.425
69 108 158.309
70 108 158.183
71 108 158.012
72 108 157.761
73 108 157.485
74 108 157.162
75 108 156.764
76 108 156.317
77 108 155.742
78 108 154.931
79 108 153.798
80 108 152.376
81 108 150.889
82 108 149.234
83 108 147.335
84 108 145.21
85 108 142.841
86 108 140.295
87 108 137.38
88 108 134.063
89 108 129.76
90 108 125.013
91 108 54.2621
92 108 54.2621
93 108 54.2621
94 108 54.2621
95 108 54.2621
96 108 54.2621
97 108 54.2621
98 108 54.2621
99 108 54.2621
100 108 54.2621
101 108 54.2621
102 108 54.2621
103 108 54.2621
104 108 54.2621
105 108 54.2621
106 108 54.2621
107 108 54.2621
108 108 54.2621
109 108 54.2621
110 108 54.2621
111 108 54.2621
112 108 54.2621
113 108 54.2621
114 108 54.2621
115 108 54.2621
116 108 54.2621
117 108 54.2621
118 108 54.2621
119 108 54.2621
0 109 54.2621
1 109 54.2621
2 109 54.2621
3 109 54.2621
4 109 54.2621
5 109 54.2621
6 109 54.2621
7 109 54.2621
8 109 54.2621
9 109 54.2621
10 109 54.2621
11 109 54.2621
12 109 54.2621
13 109 54.2621
14 109 54.2621
15 109 54.2621
16 109 54.2621
17 109 54.2621
18 109 54.2621
19 109 54.2621
20 109 54.2621
21 109 54.2621
22 109 54.2621
23 109 54.2621
24 109 54.2621
25 109 54.2621
26 109 54.2621
27 109 54.2621
28 109 54.2621
29 109 54.2621
30 109 54.2621
31 109 54.2621
32 109 54.2621
33 109 54.2621
34 109 54.2621
35 109 54.2621
36 109 54.2621
37 109 54.2621
38 109 54.2621
39 109 127.779
40 109 140.343
41 109 145.305
42 109 149.192
43 109 152.334
44 109 154.724
45 109 156.506
46 109 157.913
47 109 159.125
48 109 159.88
49 109 160.298
50 109 160.637
51 109 160.693
52 109 160.621
53 109 160.612
54 109 160.528
55 109 160.475
56 109 160.456
57 109 160.374
58 109 160.221
59 109 160.123
60 109 160.015
61 109 159.916
62 109 159.801
63 109 159.709
64 109 159.655
65 109 159.559
66 109 159.495
67 109 159.392
68 109 159.263
69 109 159.123
70 109 158.959
71 109 158.736
72 109 158.484
73 109 158.196
74 109 157.822
75 109 157.441
76 109 156.961
77 109 156.424
78 109 155.691
79 109 154.623
80 109 153.309
81 109 151.851
82 109 150.244
83 109 148.382
84 109 146.332
85 109 144.047
86 109 141.554
87 109 138.744
88 109 135.458
89 109 131.67
90 109 127.073
91 109 54.2621
92 109 54.2621
93 109 54.2621
94 109 54.2621
95 109 54.2621
96 109 54.2621
97 109 54.2621
98 109 54.2621
99 109 54.2621
100 109 54.2621
101 109 54.2621
102 109 54.2621
103 109 54.2621
104 109 54.2621
105 109 54.2621
106 109 54.2621
107 109 54.2621
108 109 54.2621
109 109 54.2621
110 109 54.2621
111 109 54.2621
112 109 54.2621
113 109 54.2621
114 109 54.2621
115 109 54.2621
116 109 54.2621
117 109 54.2621
118 109 54.2621
119 109 54.2621
0 110 54.2621
1 110 54.2621
2 110 54.2621
3 110 54.2621
4 110 54.2621
5 110 54.2621
6 110 54.2621
7 110 54.2621
8 110 54.2621
9 110 54.2621
10 110 54.2621
11 110 54.2621
12 110 54.2621
13 110 54.2621
14 110 54.2621
15 110 54.2621
16 110 54.2621
17 110 54.2621
18 110 54.2621
19 110 54.2621
20 110 54.2621
21 110 54.2621
22 110 54.2621
23 110 54.2621
24 110 54.2621
25 110 54.2621
26 110 54.2621
27 110 54.2621
28 110 54.2621
29 110 54.2621
30 110 54.2621
31 110 54.2621
32 110 54.2621
33 110 54.2621
34 110 54.2621
35 110 54.2621
36 110 54.2621
37 110 54.2621
38 110 54.2621
39 110 131.131
40 110 143.381
41 110 148.085
42 110 151.561
43 110 154.277
44 110 156.323
45 110 157.878
46 110 159.198
47 110 160.313
48 110 160.938
49 110 161.423
50 110 161.684
51 110 161.696
52 110 161.528
53 110 161.465
54 110 161.338
55 110 161.271
56 110 161.166
57 110 161.007
58 110 160.83
59 110 160.752
60 110 160.693
61 110 160.587
62 110 160.529
63 110 160.466
64 110 160.384
65 110 160.296
66 110 160.252
67 110 160.116
68 110 159.996
69 110 159.828
70 110 159.627
71 110 159.373
72 110 159.133
73 110 158.785
74 110 158.411
75 110 158.035
76 110 157.592
77 110 157.127
78 110 156.393
79 110 155.383
80 110 154.107
81 110 152.692
82 110 151.109
83 110 149.308
84 110 147.353
85 110 145.108
86 110 142.686
87 110 140.009
88 110 136.885
89 110 133.397
90 110 128.717
91 110 54.2621
92 110 54.2621
93 110 54.2621
94 110 54.2621
95 110 54.2621
96 110 54.2621
97 110 54.2621
98 110 54.2621
99 110 54.2621
100 110 54.2621
101 110 54.2621
102 110 54.2621
103 110 54.2621
104 110 54.2621
105 110 54.2621
106 110 54.2621
107 110 54.2621
108 110 54.2621
109 110 54.2621
110 110 54.2621
111 110 54.2621
112 110 54.2621
113 110 54.2621
114 110 54.2621
115 110 54.2621
116 110 54.2621
117 110 54.2621
118 110 54.2621
119 110 54.2621
0 111 54.2621
1 111 54.2621
2 111 54.2621
3 111 54.2621
4 111 54.2621
5 111 54.2621
6 111 54.2621
7 111 54.2621
8 111 54.2621
9 111 54.2621
10 111 54.2621
11 111 54.2621
12 111 54.2621
13 111 54.2621
14 111 54.2621
15 111 54.2621
16 111 54.2621
17 111 54.2621
18 111 54.2621
19 111 54.2621
20 111 54.2621
21 111 54.2621
22 111 54.2621
23 111 54.2621
24 111 54.2621
25 111 54.2621
26 111 54.2621
27 111 54.2621
28 111 54.2621
29 111 54.2621
30 111 54.2621
31 111 54.2621
32 111 54.2621
33 111 54.2621
34 111 54.2621
35 111 54.2621
36 111 54.2621
37 111 54.2621
38 111 54.2621
39 111 138.046
40 111 146.793
41 111 150.669
42 111 153.595
43 111 155.91
44 111 157.726
45 111 159.204
46 111 160.309
47 111 161.331
48 111 162.114
49 111 162.585
50 111 162.848
51 111 162.814
52 111 162.571
53 111 162.445
54 111 162.292
55 111 162.171
56 111 161.979
57 111 161.783
58 111 161.518
59 111 161.373
60 111 161.22
61 111 161.205
62 111 161.144
63 111 161.077
64 111 161.002
65 111 160.926
66 111 160.839
67 111 160.783
68 111 160.641
69 111 160.457
70 111 160.228
71 111 159.99
72 111 159.701
73 111 159.397
74 111 159.032
75 111 158.645
76 111 158.223
77 111 157.757
78 111 157.085
79 111 156.069
80 111 154.812
81 111 153.471
82 111 151.926
83 111 150.192
84 111 148.281
85 111 146.122
86 111 143.778
87 111 141.193
88 111 138.185
89 111 134.673
90 111 129.73
91 111 117.367
92 111 54.2621
93 111 54.2621
94 111 54.2621
95 111 54.2621
96 111 54.2621
97 111 54.2621
98 111 54.2621
99 111 54.2621
100 111 54.2621
101 111 54.2621
102 111 54.2621
103 111 54.2621
104 111 54.2621
105 111 54.2621
106 111 54.2621
107 111 54.2621
108 111 54.2621
109 111 54.2621
110 111 54.2621
111 111 54.2621
112 111 54.2621
113 111 54.2621
114 111 54.2621
115 111 54.2621
116 111 54.2621
117 111 54.2621
118 111 54.2621
119 111 54.2621
0 112 54.2621
1 112 54.2621
2 112 54.2621
3 112 54.2621
4 112 54.2621
5 112 54.2621
6 112 54.2621
7 112 54.2621
8 112 54.2621
9 112 54.2621
10 112 54.2621
11 112 54.2621
12 112 54.2621
13 112 54.2621
14 112 54.2621
15 112 54.2621
16 112 54.2621
17 112 54.2621
18 112 54.2621
19 112 54.2621
20 112 54.2621
21 112 54.2621
22 112 54.2621
23 112 54.2621
24 112 54.2621
25 112 54.2621
26 112 54.2621
27 112 54.2621
28 112 54.2621
29 112 54.2621
30 112 54.2621
31 112 54.2621
32 112 54.2621
33 112 54.2621
34 112 54.2621
35 112 54.2621
36 112 54.2621
37 112 54.2621
38 112 134.046
39 112 144.949
40 112 150.104
41 112 152.892
42 112 155.368
43 112 157.407
44 112 158.975
45 112 160.281
46 112 161.424
47 112 162.526
48 112 163.384
49 112 163.954
50 112 164.163
51 112 164.071
52 112 163.784
53 112 163.605
54 112 163.406
55 112 163.213
56 112 162.954
57 112 162.638
58 112 162.34
59 112 162.106
60 112 161.892
61 112 161.754
62 112 161.647
63 112 161.606
64 112 161.565
65 112 161.476
66 112 161.414
67 112 161.312
68 112 161.186
69 112 161.004
70 112 160.769
71 112 160.548
72 112 160.304
73 112 160
74 112 159.625
75 112 159.211
76 112 158.804
77 112 158.383
78 112 157.752
79 112 156.769
80 112 155.531
81 112 154.239
82 112 152.739
83 112 151.064
84 112 149.187
85 112 147.075
86 112 144.796
87 112 142.214
88 112 139.443
89 112 136.42
90 112 132.993
91 112 128.465
92 112 54.2621
93 112 54.2621
94 112 54.2621
95 112 54.2621
96 112 54.2621
97 112 54.2621
98 112 54.2621
99 112 54.2621
100 112 54.2621
101 112 54.2621
102 112 54.2621
103 112 54.2621
104 112 54.2621
105 112 54.2621
106 112 54.2621
107 112 54.2621
108 112 54.2621
109 112 54.2621
110 112 54.2621
111 112 54.2621
112 112 54.2621
113 112 54.2621
114 112 54.2621
115 112 54.2621
116 112 54.2621
117 112 54.2621
118 112 54.2621
119 112 54.2621
0 113 54.2621
1 113 54.2621
2 113 54.2621
3 113 54.2621
4 113 54.2621
5 113 54.2621
6 113 54.2621
7 113 54.2621
8 113 54.2621
9 113 54.2621
10 113 54.2621
11 113 54.2621
12 113 54.2621
13 113 54.2621
14 113 54.2621
15 113 54.2621
16 113 54.2621
17 113 54.2621
18 113 54.2621
19 113 54.2621
20 113 54.2621
21 113 54.2621
22 113 54.2621
23 113 54.2621
24 113 54.2621
25 113 54.2621
26 113 54.2621
27 113 54.2621
28 113 54.2621
29 113 54.2621
30 113 54.2621
31 113 54.2621
32 113 54.2621
33 113 54.2621
34 113 54.2621
35 113 54.2621
36 113 54.2621
37 113 54.2621
38 113 138.605
39 113 147.725
40 113 152.256
41 113 154.77
42 113 156.959
43 113 158.729
44 113 160.354
45 113 161.753
46 113 163.004
47 113 164.073
48 113 164.956
49 113 165.522
50 113 165.703
51 113 165.487
52 113 165.174
53 113 164.906
54 113 164.655
55 113 164.297
56 113 163.943
57 113 163.541
58 113 163.172
59 113 162.854
60 113 162.59
61 113 162.364
62 113 162.2
63 113 162.139
64 113 162.021
65 113 161.955
66 113 161.883
67 113 161.79
68 113 161.68
69 113 161.529
70 113 161.319
71 113 161.068
72 113 160.786
73 113 160.513
74 113 160.187
75 113 159.822
76 113 159.429
77 113 159.004
78 113 158.362
79 113 157.447
80 113 156.226
81 113 154.927
82 113 153.512
83 113 151.876
84 113 150.039
85 113 148.03
86 113 145.767
87 113 143.302
88 113 140.606
89 113 137.657
90 113 133.953
91 113 128.896
92 113 54.2621
93 113 54.2621
94 113 54.2621
95 113 54.2621
96 113 54.2621
97 113 54.2621
98 113 54.2621
99 113 54.2621
100 113 54.2621
101 113 54.2621
102 113 54.2621
103 113 54.2621
104 113 54.2621
105 113 54.2621
106 113 54.2621
107 113 54.2621
108 113 54.2621
109 113 54.2621
110 113 54.2621
111 113 54.2621
112 113 54.2621
113 113 54.2621
114 113 54.2621
115 113 54.2621
116 113 54.2621
117 113 54.2621
118 113 54.2621
119 113 54.2621
0 114 54.2621
1 114 54.2621
2 114 54.2621
3 114 54.2621
4 114 54.2621
5 114 54.2621
6 114 54.2621
7 114 54.2621
8 114 54.2621
9 114 54.2621
10 114 54.2621
11 114 54.2621
12 114 54.2621
13 114 54.2621
14 114 54.2621
15 114 54.2621
16 114 54.2621
17 114 54.2621
18 114 54.2621
19 114 54.2621
20 114 54.2621
21 114 54.2621
22 114 54.2621
23 114 54.2621
24 114 54.2621
25 114 54.2621
26 114 54.2621
27 114 54.2621
28 114 54.2621
29 114 54.2621
30 114 54.2621
31 114 54.2621
32 114 54.2621
33 114 54.2621
34 114 54.2621
35 114 54.2621
36 114 54.2621
37 114 132.444
38 114 145.961
39 114 150.588
40 114 154.227
41 114 156.574
42 114 158.698
43 114 160.632
44 114 162.255
45 114 163.725
46 114 164.939
47 114 165.961
48 114 166.674
49 114 167.242
50 114 167.386
51 114 167.09
52 114 166.734
53 114 166.339
54 114 166
55 114 165.545
56 114 165.048
57 114 164.559
58 114 164.09
59 114 163.729
60 114 163.411
61 114 163.126
62 114 162.881
63 114 162.694
64 114 162.555
65 114 162.48
66 114 162.334
67 114 162.248
68 114 162.134
69 114 161.989
70 114 161.82
71 114 161.608
72 114 161.363
73 114 161.105
74 114 160.753
75 114 160.401
76 114 159.989
77 114 159.571
78 114 158.953
79 114 158.044
80 114 156.898
81 114 155.675
82 114 154.266
83 114 152.734
84 114 150.933
85 114 149.01
86 114 146.843
87 114 144.41
88 114 141.689
89 114 138.839
90 114 134.926
91 114 128.337
92 114 112.502
93 114 54.2621
94 114 54.2621
95 114 54.2621
96 114 54.2621
97 114 54.2621
98 114 54.2621
99 114 54.2621
100 114 54.2621
101 114 54.2621
102 114 54.2621
103 114 54.2621
104 114 54.2621
105 114 54.2621
106 114 54.2621
107 114 54.2621
108 114 54.2621
109 114 54.2621
110 114 54.2621
111 114 54.2621
112 114 54.2621
113 114 54.2621
114 114 54.2621
115 114 54.2621
116 114 54.2621
117 114 54.2621
118 114 54.2621
119 114 54.2621
0 115 54.2621
1 115 54.2621
2 115 54.2621
3 115 54.2621
4 115 54.2621
5 115 54.2621
6 115 54.2621
7 115 54.2621
8 115 54.2621
9 115 54.2621
10 115 54.2621
11 115 54.2621
12 115 54.2621
13 115 54.2621
14 115 54.2621
15 115 54.2621
16 115 54.2621
17 115 54.2621
18 115 54.2621
19 115 54.2621
20 115 54.2621
21 115 54.2621
22 115 54.2621
23 115 54.2621
24 115 54.2621
25 115 54.2621
26 115 54.2621
